ply
format ascii 1.0
element vertex 1579
property float x
property float y
property float z
end_header
-14.750000 -27.250000 10.250000
-10.750000 -0.250000 25.250000
22.250000 -3.250000 24.250000
-18.250000 -20.750000 25.250000
11.250000 -17.750000 -9.250000
43.250000 -5.750000 12.250000
31.250000 -4.750000 -8.250000
20.250000 1.250000 -8.250000
20.250000 -27.250000 16.250000
24.750000 -27.250000 8.250000
45.250000 -25.750000 9.250000
59.250000 23.750000 8.250000
-22.250000 10.250000 24.250000
27.750000 -0.750000 -8.250000
21.750000 12.250000 25.250000
-9.750000 -0.750000 25.250000
-0.750000 -3.250000 -9.250000
-11.250000 -27.250000 1.750000
-21.750000 -3.750000 25.250000
-18.250000 7.250000 -8.250000
-7.750000 -23.250000 25.250000
-14.750000 -14.250000 25.250000
4.750000 26.250000 -7.750000
-15.750000 20.750000 25.250000
7.750000 -26.250000 -4.250000
18.750000 20.250000 25.250000
17.750000 -0.750000 25.250000
-17.750000 27.250000 5.750000
25.250000 -1.750000 15.750000
-19.250000 -2.750000 -8.250000
7.250000 -1.750000 26.250000
-12.250000 -4.750000 -9.250000
18.750000 6.250000 25.250000
30.250000 -2.750000 -8.250000
10.750000 -3.750000 26.250000
-12.750000 -27.250000 -3.250000
36.750000 5.750000 12.250000
-19.750000 -7.250000 25.250000
-9.250000 -27.250000 1.750000
29.750000 1.250000 13.250000
20.750000 -9.250000 24.250000
25.750000 -4.250000 -8.250000
43.250000 -28.250000 -10.750000
-6.250000 -4.750000 -9.250000
-25.750000 -27.250000 11.250000
-3.250000 -27.250000 3.750000
14.250000 16.250000 -9.250000
-21.250000 19.250000 24.250000
56.250000 4.750000 10.250000
-13.750000 -3.250000 25.250000
42.750000 -28.250000 -11.250000
47.750000 10.750000 11.250000
32.250000 -10.250000 -8.250000
20.750000 15.250000 25.250000
37.750000 6.750000 12.250000
-6.250000 -23.750000 25.250000
-10.750000 18.250000 25.250000
52.250000 -26.250000 8.250000
29.250000 -26.250000 11.750000
52.250000 -18.750000 10.250000
-10.750000 -3.750000 25.250000
33.750000 -19.750000 12.250000
46.750000 5.750000 11.250000
-12.750000 -11.250000 25.250000
24.250000 -2.750000 -8.250000
9.750000 -27.250000 18.250000
-23.250000 -27.250000 8.750000
25.750000 -12.250000 15.250000
29.750000 -14.750000 -8.250000
8.250000 -4.250000 26.250000
-15.750000 20.250000 25.250000
-15.750000 14.250000 25.250000
-12.250000 10.250000 25.250000
15.250000 27.250000 5.750000
26.250000 -4.750000 -8.250000
11.250000 -8.750000 -9.250000
-8.750000 -8.250000 25.250000
-20.250000 -27.250000 9.250000
24.750000 -27.250000 6.250000
1.250000 -27.250000 18.750000
50.750000 -8.750000 11.250000
5.250000 26.250000 -7.750000
13.250000 26.750000 24.250000
15.250000 27.250000 18.750000
27.750000 8.250000 -8.250000
-8.750000 -7.250000 25.250000
5.750000 26.250000 -7.250000
-16.750000 -20.750000 25.250000
-8.250000 7.250000 25.250000
-8.750000 -0.750000 -9.250000
47.250000 13.750000 11.250000
43.750000 -28.250000 -11.250000
-15.250000 -1.750000 25.250000
36.250000 3.250000 12.250000
3.750000 -9.250000 -9.250000
-13.750000 15.750000 25.250000
36.750000 -5.250000 12.250000
40.250000 -7.750000 12.250000
12.750000 -26.250000 -7.250000
-22.250000 10.750000 24.250000
50.750000 -0.750000 11.250000
-7.750000 -26.250000 14.750000
59.750000 -6.250000 9.250000
-8.250000 -10.750000 25.250000
11.750000 -23.250000 25.250000
18.250000 -27.250000 10.250000
0.750000 -26.250000 -4.250000
-13.750000 6.750000 25.250000
23.250000 27.250000 11.750000
29.750000 -27.250000 6.750000
-19.750000 -3.250000 25.250000
25.250000 -12.250000 15.250000
-9.750000 8.250000 25.250000
-1.750000 -23.750000 25.250000
3.250000 26.250000 -7.750000
31.250000 -27.250000 3.750000
33.750000 -25.250000 11.750000
-5.250000 -26.250000 22.250000
18.250000 27.250000 5.750000
26.250000 8.750000 -8.250000
-12.750000 17.250000 25.250000
-10.250000 16.250000 25.250000
-3.250000 -1.750000 -9.250000
13.750000 -19.750000 -9.250000
-8.750000 -7.750000 25.250000
-6.750000 -4.250000 -9.250000
13.750000 -27.250000 21.750000
8.250000 -27.250000 19.750000
-19.250000 23.250000 23.750000
29.750000 1.250000 -8.250000
-20.750000 -10.250000 25.250000
11.750000 -27.250000 19.750000
7.250000 -10.250000 -9.250000
37.250000 1.250000 12.250000
-18.750000 -27.250000 4.750000
34.750000 -6.750000 -8.250000
-0.750000 -1.250000 -9.250000
31.750000 -3.750000 13.250000
-14.250000 -10.750000 25.250000
27.250000 -17.250000 15.250000
33.750000 18.250000 12.250000
45.750000 -13.750000 11.250000
-10.750000 8.750000 25.250000
50.250000 19.750000 10.250000
12.250000 -21.750000 -9.250000
-10.250000 4.750000 25.250000
43.750000 9.750000 11.250000
30.250000 12.250000 13.750000
18.250000 18.250000 25.250000
32.750000 1.250000 12.250000
1.250000 -5.750000 26.250000
20.750000 23.750000 25.250000
1.750000 24.250000 24.250000
19.250000 0.250000 -8.250000
48.750000 -26.250000 8.750000
-15.750000 26.250000 22.250000
46.250000 7.750000 11.250000
-16.250000 -27.250000 -5.750000
42.750000 -4.750000 12.250000
-0.750000 -6.250000 -9.250000
25.250000 -12.750000 15.750000
16.250000 6.750000 -8.250000
48.250000 -26.250000 8.750000
14.750000 18.250000 -9.250000
20.750000 -24.250000 24.250000
30.250000 6.250000 -8.250000
37.750000 -1.250000 12.250000
-9.250000 -1.250000 25.250000
40.250000 21.750000 11.250000
-16.250000 -27.250000 11.750000
-7.750000 -5.750000 -9.250000
-37.750000 -28.250000 -3.750000
24.250000 16.250000 22.250000
45.250000 13.250000 11.250000
-18.750000 26.250000 21.750000
33.250000 23.250000 12.250000
20.250000 10.750000 25.250000
-6.250000 1.750000 -9.250000
4.250000 -5.250000 26.250000
54.250000 11.250000 10.250000
48.250000 -10.750000 11.250000
-12.750000 26.250000 22.250000
-36.250000 -29.250000 -17.250000
39.250000 -2.750000 12.250000
17.750000 27.250000 3.750000
29.750000 -27.250000 2.750000
-44.750000 -27.750000 -24.250000
34.750000 -16.750000 12.250000
12.250000 27.250000 18.750000
-17.750000 -2.750000 25.250000
50.750000 5.250000 11.250000
13.250000 -11.750000 -9.250000
11.750000 -16.250000 -9.250000
15.250000 -19.750000 -9.250000
39.250000 -25.250000 10.250000
30.750000 6.750000 -8.250000
0.250000 -9.750000 -9.250000
22.750000 11.250000 -8.250000
32.250000 -11.750000 -8.250000
38.750000 23.250000 11.250000
13.750000 -23.750000 25.250000
37.750000 3.250000 12.250000
34.250000 21.750000 12.250000
28.750000 -9.250000 -8.250000
11.750000 -26.250000 -4.250000
-16.250000 -27.250000 -5.250000
13.250000 -26.750000 -3.250000
34.250000 5.750000 12.250000
1.250000 -16.250000 -9.250000
38.250000 -6.750000 12.250000
43.250000 -17.250000 11.250000
-5.250000 -4.250000 -9.250000
14.250000 -23.250000 25.250000
23.750000 3.750000 24.250000
37.750000 -6.250000 12.250000
22.750000 27.250000 -0.750000
-6.750000 -6.750000 -9.250000
21.750000 -27.250000 8.250000
30.750000 -27.250000 6.250000
12.750000 27.250000 19.250000
-8.750000 -27.250000 9.750000
-17.250000 9.250000 -8.250000
26.750000 -27.250000 7.750000
47.750000 6.750000 11.250000
0.250000 -9.250000 -9.250000
-11.250000 18.750000 25.250000
12.750000 2.250000 26.250000
-8.250000 0.750000 25.250000
-13.250000 -17.250000 -9.250000
-9.750000 20.250000 25.250000
16.250000 -27.250000 2.250000
51.250000 18.750000 10.250000
11.750000 27.250000 20.750000
22.250000 15.750000 -8.250000
-0.250000 -3.250000 -9.250000
21.250000 -26.250000 -6.250000
10.750000 27.250000 19.250000
-19.750000 -11.750000 25.250000
-1.750000 -26.750000 7.250000
-10.750000 -8.250000 25.250000
17.750000 -26.250000 -7.250000
-19.750000 -27.250000 11.750000
0.250000 -26.250000 14.750000
23.250000 -15.250000 24.250000
27.750000 -2.750000 -8.250000
-16.750000 -10.750000 25.250000
40.250000 -5.750000 12.250000
-17.250000 -11.250000 25.250000
29.250000 -12.750000 13.250000
23.250000 -13.250000 24.250000
41.250000 -19.250000 11.250000
50.250000 3.750000 11.250000
13.750000 -26.250000 -4.250000
1.250000 -27.250000 19.250000
-13.250000 -4.750000 25.250000
20.750000 26.250000 24.250000
56.250000 18.750000 9.250000
19.750000 13.250000 25.250000
-18.250000 8.750000 -8.250000
37.250000 -14.250000 12.250000
-19.250000 -27.250000 5.250000
42.750000 -1.750000 12.250000
35.250000 3.750000 12.250000
-9.250000 -27.250000 9.250000
22.250000 -24.250000 24.250000
-12.750000 -27.250000 10.250000
33.250000 -7.250000 -8.250000
23.750000 -5.750000 24.250000
36.250000 -24.250000 11.250000
-10.250000 2.250000 25.250000
-9.750000 -27.250000 -4.750000
51.750000 -0.750000 11.250000
-14.250000 -27.250000 4.250000
-12.750000 -20.250000 25.250000
-14.250000 -1.750000 25.250000
39.250000 -3.250000 12.250000
-16.750000 5.750000 -8.250000
0.250000 -26.250000 -7.250000
-10.750000 -21.750000 25.250000
25.250000 -12.750000 15.250000
-18.250000 10.250000 -8.250000
35.750000 -7.250000 12.250000
-10.250000 -6.250000 25.250000
17.750000 0.750000 -8.250000
-13.750000 7.250000 25.250000
51.250000 0.250000 11.250000
40.250000 14.250000 11.250000
17.250000 -26.250000 -7.250000
10.750000 27.250000 17.750000
0.250000 23.250000 25.250000
18.250000 10.250000 -8.250000
41.250000 -14.750000 11.250000
46.250000 -10.250000 11.250000
51.250000 6.750000 11.250000
-17.250000 -27.250000 8.250000
17.750000 22.750000 25.250000
-13.750000 -17.750000 25.250000
-13.750000 22.750000 25.250000
29.750000 3.750000 13.250000
-7.750000 -2.750000 -9.250000
26.750000 -27.250000 4.250000
-18.250000 -27.250000 7.750000
30.250000 -9.750000 -8.250000
-10.250000 -2.750000 -9.250000
17.250000 -27.250000 17.250000
1.750000 -9.250000 -9.250000
50.750000 -20.750000 10.250000
6.750000 -15.250000 -9.250000
-25.250000 -27.250000 9.750000
21.250000 15.250000 25.250000
27.250000 -16.750000 15.250000
27.750000 2.250000 -8.250000
34.250000 -12.250000 -8.250000
59.250000 -4.750000 9.250000
42.750000 11.750000 11.250000
52.250000 5.250000 11.250000
23.250000 -20.750000 24.250000
-11.750000 -27.250000 -0.750000
-9.250000 -27.250000 -0.250000
-23.750000 -27.250000 9.750000
-12.250000 -27.250000 10.250000
14.750000 16.750000 -9.250000
-14.250000 -15.750000 25.250000
-19.750000 8.750000 -8.250000
45.250000 -13.250000 11.250000
53.250000 -14.750000 10.250000
31.750000 8.250000 -8.250000
49.250000 -3.750000 11.250000
-17.750000 11.750000 -8.250000
8.250000 0.750000 -8.250000
0.750000 -26.250000 13.250000
-13.750000 18.250000 25.250000
-25.750000 -27.250000 9.750000
1.750000 23.750000 25.250000
-27.250000 26.250000 11.250000
-14.750000 -17.750000 25.250000
-9.750000 -27.250000 3.250000
12.750000 17.750000 -9.250000
46.250000 -26.250000 8.250000
-11.750000 -27.250000 1.250000
8.250000 -27.250000 8.750000
1.750000 -27.250000 19.750000
-9.750000 6.250000 25.250000
4.250000 -27.250000 18.250000
33.750000 19.250000 12.250000
26.250000 27.250000 11.750000
8.250000 27.250000 4.750000
-8.250000 -27.250000 6.750000
22.250000 27.250000 4.750000
26.750000 -6.250000 -8.250000
-3.750000 -1.250000 -9.250000
-11.250000 17.750000 25.250000
-8.250000 -27.250000 -0.750000
-21.750000 19.750000 24.250000
-10.250000 11.750000 25.250000
43.250000 -28.250000 -14.250000
-23.250000 -0.250000 25.250000
51.750000 20.750000 10.250000
41.750000 -17.250000 11.250000
26.750000 -26.250000 13.250000
33.250000 -12.250000 12.250000
24.250000 -7.250000 -8.250000
0.750000 -27.250000 21.250000
-10.250000 -14.250000 25.250000
17.750000 -27.250000 8.750000
11.250000 27.250000 4.750000
35.250000 -0.250000 12.250000
-15.250000 9.250000 25.250000
21.750000 27.250000 11.750000
7.750000 -5.750000 26.250000
13.750000 -26.250000 -4.750000
18.750000 -4.750000 25.250000
-11.750000 -16.750000 25.250000
-2.250000 -5.250000 -9.250000
-21.250000 -16.250000 25.250000
49.750000 -22.750000 10.250000
25.250000 3.250000 -8.250000
5.750000 -26.250000 -5.750000
52.250000 27.250000 5.250000
-26.750000 9.250000 -7.250000
28.750000 -6.250000 -8.250000
7.250000 -7.750000 26.250000
-10.750000 -15.750000 25.250000
-6.250000 21.250000 25.250000
18.750000 -27.250000 19.250000
34.750000 -5.750000 12.250000
55.250000 -10.750000 10.250000
42.250000 17.750000 11.250000
19.250000 4.250000 25.250000
-6.250000 -27.250000 2.250000
1.250000 -26.250000 -4.750000
-11.250000 -26.250000 23.250000
-14.750000 -27.250000 9.250000
34.750000 -4.250000 12.250000
34.750000 20.250000 12.250000
-16.750000 -27.250000 1.250000
37.750000 -23.750000 11.250000
10.250000 27.250000 19.250000
35.250000 -9.750000 12.250000
22.750000 -26.250000 -7.750000
-11.250000 -4.750000 25.250000
-17.250000 -5.750000 -8.250000
-3.750000 -27.250000 3.250000
-5.750000 -0.750000 -9.250000
20.750000 9.750000 25.250000
-9.750000 4.750000 25.250000
19.750000 10.250000 25.250000
43.750000 11.250000 11.250000
11.750000 -27.250000 18.750000
0.250000 -27.250000 20.750000
9.750000 -2.250000 26.250000
-8.250000 10.250000 25.250000
-16.750000 -6.750000 25.250000
-9.250000 -3.750000 25.250000
20.250000 21.750000 25.250000
-13.250000 -27.250000 -0.750000
37.750000 28.250000 -16.750000
-18.750000 -19.250000 25.250000
25.250000 27.250000 7.250000
-11.750000 -7.750000 25.250000
-18.250000 -27.250000 8.750000
-22.250000 -1.750000 25.250000
17.250000 -17.250000 -9.250000
-12.750000 -8.750000 -9.250000
22.750000 -27.250000 19.250000
24.750000 -27.250000 4.750000
-22.250000 -27.250000 11.750000
-19.750000 -4.750000 -8.250000
47.250000 12.250000 11.250000
22.250000 -16.750000 24.250000
39.750000 16.250000 11.250000
-11.750000 9.750000 25.250000
17.250000 9.250000 -8.250000
-14.250000 -11.250000 25.250000
55.250000 7.750000 10.250000
-3.750000 -26.750000 7.250000
22.250000 -17.250000 24.250000
16.750000 0.250000 -8.250000
41.750000 9.250000 11.250000
25.250000 1.750000 -8.250000
30.750000 -19.250000 -8.250000
28.250000 -27.250000 3.250000
49.250000 1.750000 11.250000
9.250000 27.250000 20.750000
14.750000 27.250000 3.750000
-9.250000 1.250000 25.250000
-11.250000 -26.250000 23.750000
20.250000 27.250000 -2.250000
-6.750000 0.750000 -9.250000
-20.250000 -7.250000 -8.250000
-10.250000 23.250000 25.250000
0.750000 -27.250000 18.750000
-16.750000 3.250000 -8.250000
-17.250000 -27.250000 1.750000
-3.750000 -27.250000 1.750000
-22.250000 26.250000 21.750000
42.750000 23.250000 10.250000
21.750000 -27.250000 22.250000
2.750000 -26.250000 -6.750000
49.750000 8.250000 11.250000
0.750000 -27.250000 9.250000
53.250000 12.750000 10.250000
29.250000 -15.750000 -8.250000
-4.750000 22.250000 25.250000
4.750000 25.250000 24.250000
-12.250000 1.750000 25.250000
27.750000 -0.250000 -8.250000
-7.250000 -26.250000 23.250000
20.750000 0.250000 -8.250000
-11.250000 -0.750000 -9.250000
11.750000 27.250000 17.250000
19.750000 19.750000 25.250000
-1.250000 -27.250000 1.250000
12.250000 -17.250000 -9.250000
37.750000 -8.750000 12.250000
2.250000 -17.250000 -9.250000
9.750000 -26.250000 -3.250000
37.250000 4.250000 12.250000
-3.750000 -27.250000 0.250000
13.750000 -20.250000 -9.250000
14.750000 -22.750000 25.250000
-9.250000 13.250000 25.250000
-13.250000 -27.250000 -2.250000
12.250000 2.250000 26.250000
-15.750000 -27.250000 8.750000
31.750000 -11.750000 -8.250000
26.250000 -5.250000 -8.250000
42.750000 -17.250000 11.250000
-11.750000 18.250000 25.250000
-22.250000 -15.250000 -8.250000
-24.750000 -27.250000 9.250000
16.750000 -2.250000 25.250000
-18.750000 7.750000 -8.250000
1.750000 -11.750000 -9.250000
56.250000 -5.250000 10.250000
24.750000 -19.750000 22.250000
41.250000 19.250000 11.250000
-2.250000 -4.750000 -9.250000
13.750000 -27.250000 8.750000
-14.250000 -27.250000 -3.250000
29.250000 27.250000 7.250000
41.750000 17.250000 11.250000
-16.250000 -7.250000 -8.250000
26.250000 14.750000 16.750000
45.750000 11.250000 11.250000
-11.250000 -27.250000 -2.250000
38.250000 -26.250000 8.750000
26.750000 0.750000 -8.250000
54.250000 -15.250000 10.250000
50.250000 -21.250000 10.250000
12.750000 -27.250000 18.750000
4.750000 -9.750000 -9.250000
17.250000 12.750000 -8.250000
49.750000 8.750000 11.250000
-10.250000 -13.250000 25.250000
57.750000 -3.250000 10.250000
21.250000 13.250000 -8.250000
-15.750000 -0.250000 25.250000
25.250000 -1.250000 15.250000
28.750000 -27.250000 5.750000
27.250000 5.750000 -8.250000
25.750000 1.750000 -8.250000
9.250000 24.750000 24.250000
-15.750000 19.750000 25.250000
-19.750000 -7.250000 -8.250000
52.250000 -17.250000 10.250000
22.750000 -10.250000 24.250000
19.750000 -27.250000 8.750000
-41.250000 -29.250000 -17.250000
22.250000 27.250000 6.750000
31.750000 -15.250000 -8.250000
-36.250000 -29.250000 -17.750000
-10.750000 14.750000 25.250000
-21.250000 -27.250000 5.750000
-19.250000 -5.750000 25.250000
29.250000 6.750000 13.250000
-21.750000 -7.250000 -8.250000
23.750000 27.250000 -3.750000
25.250000 10.750000 -8.250000
-18.250000 -8.250000 25.250000
13.250000 27.250000 5.750000
-48.750000 -28.250000 -10.250000
35.750000 -1.750000 12.250000
24.750000 -5.750000 -8.250000
-23.750000 -11.750000 -8.250000
-15.250000 20.750000 25.250000
19.250000 0.750000 -8.250000
17.250000 -0.250000 25.250000
29.750000 -27.250000 3.250000
-18.750000 7.250000 -8.250000
13.750000 27.250000 18.250000
-0.250000 25.250000 24.250000
-9.250000 -7.250000 -9.250000
33.750000 -13.250000 -8.250000
38.750000 19.750000 11.250000
-12.750000 -26.250000 23.250000
30.250000 -26.250000 11.750000
0.250000 -27.250000 9.250000
36.750000 -10.250000 12.250000
30.750000 4.250000 13.250000
-14.250000 -2.250000 25.250000
36.750000 -24.750000 11.250000
30.750000 -6.250000 -8.250000
-15.250000 -27.250000 0.250000
29.250000 -17.750000 14.250000
-15.750000 -27.250000 2.750000
19.250000 -22.750000 24.250000
20.250000 -21.250000 24.250000
-8.250000 19.750000 25.250000
55.750000 22.750000 9.250000
16.250000 3.250000 -8.250000
-39.750000 29.250000 -20.750000
4.250000 -27.250000 8.750000
17.750000 -27.250000 3.750000
3.250000 -7.750000 26.250000
37.750000 -7.750000 -8.250000
21.750000 27.250000 3.250000
8.750000 -19.250000 -9.250000
17.250000 -3.250000 -8.250000
-20.250000 -27.250000 8.750000
45.750000 13.250000 11.250000
30.750000 -2.250000 -8.250000
25.750000 -0.250000 15.250000
14.250000 -17.250000 -9.250000
1.250000 23.750000 25.250000
50.250000 -0.250000 11.250000
23.750000 13.250000 -8.250000
-21.250000 18.750000 24.250000
-8.250000 8.750000 25.250000
23.750000 4.250000 -8.250000
13.250000 -27.250000 21.750000
-7.750000 -27.250000 2.750000
8.250000 -0.750000 26.250000
18.250000 -24.250000 24.250000
18.750000 -27.250000 8.750000
24.250000 5.250000 -8.250000
12.250000 -26.250000 -6.750000
-6.750000 -26.250000 14.750000
-10.250000 -27.250000 -6.750000
22.750000 -12.250000 24.250000
-27.750000 -26.250000 15.750000
-5.750000 -5.750000 -9.250000
0.750000 -27.250000 20.750000
27.250000 0.250000 -8.250000
39.750000 -10.250000 12.250000
-11.750000 14.250000 25.250000
24.750000 -27.250000 6.750000
22.750000 -15.250000 24.250000
-1.750000 -4.750000 -9.250000
-8.750000 21.750000 25.250000
16.750000 16.750000 25.250000
1.250000 -26.250000 14.250000
28.750000 -26.250000 12.750000
14.250000 27.250000 19.750000
-17.250000 -3.750000 -8.250000
-8.750000 -6.750000 25.250000
-9.750000 -7.250000 25.250000
25.750000 -14.750000 15.250000
4.750000 -7.750000 26.250000
24.750000 -3.750000 -8.250000
-0.250000 -5.250000 -9.250000
12.750000 -27.250000 19.250000
7.750000 -12.750000 -9.250000
-19.250000 -26.250000 15.750000
-16.250000 -3.750000 25.250000
-10.250000 -16.750000 25.250000
16.250000 10.250000 -8.250000
-10.250000 8.750000 25.250000
29.750000 -8.750000 13.250000
-10.750000 15.750000 25.250000
22.250000 -27.250000 19.750000
-14.750000 -27.250000 -4.250000
5.250000 -9.250000 -9.250000
4.250000 -26.250000 15.750000
2.250000 26.250000 -7.750000
40.750000 -7.750000 12.250000
36.250000 -10.750000 12.250000
51.250000 2.250000 11.250000
-25.250000 11.250000 -7.250000
-12.750000 -8.250000 25.250000
1.250000 -27.250000 20.250000
42.250000 -28.250000 -21.250000
-9.250000 0.250000 25.250000
29.250000 -27.250000 5.250000
11.750000 19.250000 -9.250000
18.750000 1.750000 -8.250000
-1.750000 -27.250000 8.250000
-21.750000 -3.250000 25.250000
29.250000 5.750000 13.250000
35.750000 -13.250000 12.250000
42.250000 20.250000 11.250000
-10.750000 -6.750000 25.250000
-15.250000 -27.250000 10.750000
-7.250000 21.250000 25.250000
-15.750000 -4.750000 25.250000
49.750000 -3.750000 11.250000
33.250000 -13.250000 -8.250000
-17.250000 -18.750000 25.250000
20.750000 8.750000 -8.250000
47.750000 3.750000 11.250000
-7.750000 -5.250000 -9.250000
-26.250000 8.250000 -7.250000
39.750000 -5.750000 12.250000
27.250000 27.250000 -7.250000
3.250000 -27.250000 18.750000
-1.750000 -7.750000 -9.250000
40.750000 -28.250000 -11.250000
-9.750000 -10.250000 25.250000
18.750000 27.250000 4.750000
33.250000 19.750000 12.250000
15.250000 -27.250000 19.750000
18.250000 17.750000 25.250000
-14.750000 20.750000 25.250000
-4.250000 -26.250000 13.750000
-13.250000 -26.250000 23.250000
-8.250000 -27.250000 1.750000
-12.750000 -27.250000 4.750000
9.750000 26.250000 -6.250000
-17.250000 -0.250000 25.250000
-17.250000 13.750000 -8.250000
-10.250000 10.250000 25.250000
-6.750000 -27.250000 2.750000
32.250000 0.750000 12.250000
14.250000 27.250000 18.750000
20.750000 27.250000 -1.750000
31.250000 -27.250000 -5.250000
40.750000 18.250000 11.250000
22.750000 15.250000 -8.250000
17.250000 13.250000 -8.250000
39.750000 22.750000 11.250000
33.250000 16.250000 12.250000
34.750000 -18.750000 12.250000
-12.250000 10.750000 25.250000
-13.750000 -1.250000 25.250000
-7.750000 1.750000 -9.250000
-10.750000 -27.250000 -5.250000
0.250000 -26.250000 15.250000
-22.250000 -27.250000 3.250000
29.250000 -1.250000 -8.250000
24.250000 27.250000 7.250000
-3.750000 -26.250000 7.750000
-14.250000 -12.250000 25.250000
-12.250000 -9.750000 25.250000
7.250000 -14.750000 -9.250000
7.250000 -13.750000 -9.250000
33.750000 -27.250000 3.250000
43.750000 10.250000 11.250000
40.250000 -16.750000 11.250000
-8.250000 -7.250000 -9.250000
37.750000 -15.750000 12.250000
32.750000 6.250000 12.250000
-9.750000 13.750000 25.250000
27.750000 0.250000 -8.250000
7.750000 2.250000 26.250000
37.750000 -25.250000 10.750000
42.250000 -28.250000 -9.750000
33.250000 1.750000 12.250000
8.750000 -23.750000 25.250000
38.750000 -20.250000 11.250000
-11.250000 -27.250000 4.250000
22.250000 27.250000 -0.750000
-6.250000 0.250000 -9.250000
-10.250000 -12.250000 25.250000
27.750000 -2.250000 -8.250000
30.750000 -10.750000 -8.250000
-12.250000 0.250000 25.250000
36.250000 26.250000 11.750000
34.750000 -5.250000 12.250000
-8.750000 -4.750000 -9.250000
-12.750000 11.750000 25.250000
2.750000 -27.250000 19.250000
-22.750000 -3.250000 25.250000
-14.250000 -9.750000 25.250000
0.750000 -27.250000 9.750000
-15.750000 10.250000 25.250000
32.250000 27.250000 9.250000
29.250000 -6.250000 -8.250000
45.250000 8.250000 11.250000
13.750000 -17.750000 -9.250000
22.750000 27.250000 -3.750000
-8.750000 22.750000 25.250000
-1.250000 22.250000 25.250000
-14.750000 -8.750000 25.250000
2.750000 -7.250000 26.250000
41.250000 16.250000 11.250000
22.250000 -1.250000 24.250000
-22.250000 19.750000 24.250000
-16.750000 -0.250000 25.250000
-10.750000 -9.750000 25.250000
56.750000 18.750000 9.250000
4.250000 25.750000 24.250000
26.250000 14.250000 16.250000
-5.250000 -27.250000 1.750000
-17.750000 6.250000 -8.250000
13.750000 26.250000 24.250000
26.250000 -1.250000 -8.250000
-17.250000 -6.750000 25.250000
16.250000 -27.250000 17.250000
-15.750000 -13.750000 25.250000
-17.250000 -4.750000 25.250000
28.750000 1.250000 -8.250000
38.750000 -14.250000 12.250000
24.250000 -27.250000 9.250000
-12.250000 -1.250000 25.250000
32.250000 13.750000 12.250000
18.250000 0.250000 -8.250000
8.750000 27.250000 17.750000
-23.250000 -27.250000 9.250000
20.250000 20.250000 25.250000
51.750000 -6.250000 11.250000
9.750000 27.250000 16.250000
22.750000 27.250000 -1.250000
37.250000 -7.750000 12.250000
49.250000 -6.750000 11.250000
6.750000 -10.750000 -9.250000
28.250000 5.250000 -8.250000
-18.250000 -5.750000 -8.250000
6.250000 -27.250000 9.250000
10.250000 26.250000 -6.250000
-8.250000 -24.250000 24.250000
24.250000 -27.250000 3.750000
32.750000 2.750000 12.250000
33.250000 -5.250000 12.250000
-12.250000 -27.250000 -0.250000
16.250000 -1.750000 25.250000
9.750000 -6.750000 26.250000
-8.750000 -27.250000 2.750000
10.250000 -18.250000 -9.250000
6.250000 -26.250000 -5.250000
46.250000 -15.250000 11.250000
-13.250000 -27.250000 9.250000
28.250000 -1.250000 -8.250000
24.250000 8.250000 -8.250000
13.250000 -20.250000 25.250000
-2.750000 -1.250000 -9.250000
-15.250000 -5.750000 25.250000
-8.750000 -27.250000 -6.250000
19.750000 -27.250000 2.750000
-13.250000 -27.250000 10.750000
-15.750000 -27.250000 -5.750000
53.750000 -2.750000 11.250000
54.250000 -28.250000 -11.250000
34.250000 -14.750000 12.250000
34.750000 -10.250000 12.250000
15.250000 18.750000 -9.250000
-20.750000 -26.250000 15.250000
-19.750000 21.250000 24.250000
-18.250000 -19.750000 25.250000
8.250000 2.750000 26.250000
38.250000 -25.250000 10.750000
52.250000 0.750000 11.250000
42.750000 -17.750000 11.250000
12.750000 27.250000 18.750000
17.750000 5.250000 25.250000
45.750000 14.250000 11.250000
22.250000 -10.250000 24.250000
46.250000 -14.250000 11.250000
31.750000 1.750000 -8.250000
19.750000 5.750000 25.250000
-8.750000 -27.250000 -0.250000
-11.250000 -11.250000 25.250000
13.250000 -18.250000 -9.250000
18.250000 -27.250000 19.250000
-2.750000 -6.750000 -9.250000
21.750000 -24.750000 -8.250000
-14.250000 -27.250000 8.250000
-14.250000 21.250000 -8.250000
-15.250000 -0.250000 25.250000
-9.250000 16.750000 25.250000
-21.750000 -27.250000 5.250000
-9.750000 -11.250000 25.250000
-14.750000 -27.250000 -0.750000
-9.250000 -4.750000 -9.250000
-10.250000 16.750000 25.250000
51.750000 3.250000 11.250000
30.750000 -5.750000 -8.250000
19.250000 20.250000 25.250000
34.750000 2.250000 -8.250000
56.750000 5.750000 10.250000
21.250000 8.250000 25.250000
-1.250000 -27.250000 1.750000
39.750000 -17.250000 11.250000
40.250000 -28.250000 -11.250000
24.250000 -1.750000 -8.250000
-14.750000 -27.250000 8.250000
-5.750000 -3.750000 -9.250000
-16.750000 7.250000 -8.250000
35.250000 -2.250000 12.250000
14.250000 -16.250000 -9.250000
8.750000 -26.250000 -5.750000
-27.750000 -27.250000 11.250000
14.250000 18.250000 -9.250000
35.250000 -14.750000 12.250000
-16.750000 -27.250000 8.250000
49.250000 5.250000 11.250000
16.750000 -27.250000 4.750000
38.250000 19.750000 11.250000
23.250000 27.250000 3.750000
43.750000 7.250000 11.250000
50.750000 18.250000 10.250000
-8.750000 -27.250000 -1.750000
10.250000 27.250000 18.750000
-18.250000 21.250000 24.250000
-23.250000 -3.750000 25.250000
37.750000 23.250000 11.250000
-16.750000 13.250000 -8.250000
36.750000 6.750000 12.250000
20.250000 2.250000 -8.250000
-18.750000 -27.250000 8.750000
-2.750000 -27.250000 8.250000
21.750000 -16.250000 24.250000
30.750000 -27.250000 3.750000
34.250000 1.750000 -8.250000
18.250000 -27.250000 21.750000
52.750000 2.250000 11.250000
8.750000 2.250000 -8.250000
28.250000 -10.750000 -8.250000
-17.750000 -26.250000 22.750000
31.250000 0.750000 -8.250000
1.750000 -17.750000 -9.250000
23.750000 27.250000 -0.250000
-16.250000 -27.250000 9.750000
38.250000 -15.750000 12.250000
42.250000 -16.750000 11.250000
19.750000 10.750000 25.250000
-5.750000 -27.250000 2.750000
38.250000 -1.250000 12.250000
-10.750000 -19.750000 25.250000
-22.250000 -27.250000 11.250000
-17.250000 -21.250000 25.250000
52.250000 -28.250000 -21.750000
-24.250000 26.250000 13.750000
-0.250000 -27.250000 0.750000
-20.250000 -27.250000 10.750000
3.250000 -26.250000 -6.750000
22.250000 -23.750000 23.250000
1.250000 -27.250000 20.750000
10.250000 -26.250000 -3.250000
-15.250000 -16.750000 25.250000
-9.750000 -4.750000 25.250000
47.250000 -24.750000 9.250000
-1.250000 -26.250000 22.250000
-15.750000 17.750000 25.250000
11.250000 27.250000 20.750000
3.750000 -15.750000 -9.250000
42.250000 -18.250000 11.250000
-6.250000 6.250000 -9.250000
44.750000 -12.250000 11.250000
-12.250000 3.250000 25.250000
-7.750000 -0.750000 -9.250000
4.250000 -8.250000 -9.250000
16.250000 -2.750000 25.250000
28.750000 -5.750000 -8.250000
-17.750000 2.750000 -8.250000
-22.250000 -5.250000 25.250000
22.250000 27.250000 5.250000
-0.750000 -5.750000 -9.250000
-9.250000 -1.750000 25.250000
13.250000 27.250000 4.750000
-14.250000 -27.250000 -0.750000
18.250000 1.750000 -8.250000
-11.250000 -3.750000 25.250000
-8.250000 -6.250000 25.250000
6.250000 -9.750000 -9.250000
41.250000 20.250000 11.250000
11.750000 -18.750000 -9.250000
-23.250000 -4.250000 25.250000
-0.750000 25.250000 24.250000
17.250000 -6.250000 25.250000
-12.250000 -5.250000 -9.250000
18.750000 0.250000 25.250000
41.750000 -18.250000 11.250000
24.250000 -5.250000 -8.250000
31.750000 2.750000 -8.250000
-8.250000 -0.750000 -9.250000
-20.750000 -17.750000 25.250000
26.250000 -27.250000 8.750000
3.750000 23.750000 25.250000
52.750000 -5.250000 11.250000
54.750000 -23.250000 9.250000
28.250000 0.750000 -8.250000
8.750000 -27.250000 19.750000
40.750000 -19.750000 11.250000
-20.750000 8.250000 -8.250000
-1.250000 -5.250000 -9.250000
51.250000 5.750000 11.250000
-17.250000 -17.250000 25.250000
53.250000 18.750000 10.250000
5.250000 -26.250000 24.750000
8.750000 -3.250000 26.250000
39.750000 -7.250000 12.250000
-9.250000 -26.250000 22.750000
-13.250000 -9.250000 25.250000
17.250000 6.250000 25.250000
-16.750000 -27.250000 -5.750000
40.750000 -14.750000 11.250000
33.750000 -17.250000 12.250000
57.750000 -1.750000 10.250000
-2.750000 -5.250000 -9.250000
-10.250000 22.250000 25.250000
16.750000 16.250000 25.250000
-11.750000 -4.750000 25.250000
-10.250000 4.250000 25.250000
-4.750000 -26.250000 13.750000
35.750000 -9.750000 12.250000
4.750000 -14.750000 -9.250000
13.750000 27.250000 18.750000
-22.250000 11.750000 24.250000
-4.750000 -5.250000 -9.250000
22.250000 3.750000 -8.250000
39.750000 -3.750000 12.250000
29.250000 -13.250000 13.250000
32.750000 5.750000 12.250000
-21.750000 -27.250000 11.750000
15.750000 -14.750000 25.250000
5.750000 -26.250000 -4.750000
42.750000 17.750000 11.250000
-0.750000 -25.250000 24.250000
22.250000 -26.250000 -6.250000
-41.250000 -20.750000 -16.250000
-5.750000 -27.250000 2.250000
34.750000 -13.750000 -8.250000
33.250000 -17.750000 12.250000
26.250000 -3.250000 -8.250000
-15.250000 16.250000 25.250000
9.750000 -6.250000 26.250000
-11.250000 11.250000 25.250000
27.750000 12.750000 15.250000
16.750000 22.250000 25.250000
40.750000 16.250000 11.250000
17.750000 0.250000 25.250000
22.750000 27.250000 5.750000
-10.750000 -4.250000 -9.250000
-7.750000 23.250000 25.250000
17.250000 27.250000 5.250000
12.250000 -26.250000 -5.750000
-13.750000 11.750000 25.250000
18.250000 -27.250000 8.250000
-17.250000 -5.250000 25.250000
-17.250000 -4.750000 -8.250000
35.250000 -11.250000 12.250000
8.750000 3.250000 26.250000
-12.750000 13.250000 25.250000
18.750000 -26.250000 -6.750000
12.250000 17.250000 -9.250000
34.750000 -15.750000 12.250000
-5.250000 23.750000 25.250000
-18.250000 17.250000 -8.250000
8.750000 2.750000 -8.250000
9.750000 25.250000 -8.250000
6.250000 -5.250000 26.250000
-9.250000 -8.750000 25.250000
-19.750000 -2.250000 -8.250000
42.250000 -3.250000 12.250000
26.750000 27.250000 11.750000
19.750000 23.750000 25.250000
52.250000 -19.250000 10.250000
-17.750000 -17.250000 25.250000
32.250000 -20.750000 12.250000
9.750000 -17.250000 -9.250000
17.250000 18.750000 25.250000
11.750000 6.250000 26.250000
-17.750000 -27.250000 11.250000
-20.250000 -27.250000 -1.750000
-13.250000 14.250000 25.250000
-18.250000 -9.750000 25.250000
-20.250000 -1.250000 25.250000
42.250000 15.750000 11.250000
-16.750000 -11.750000 25.250000
29.750000 -14.250000 -8.250000
-5.250000 -21.750000 25.250000
36.250000 -4.250000 12.250000
52.750000 -6.250000 11.250000
35.250000 -12.750000 -8.250000
48.250000 -7.750000 11.250000
19.250000 27.250000 9.250000
10.750000 7.250000 26.250000
9.250000 3.250000 26.250000
2.750000 -9.250000 -9.250000
31.750000 -13.250000 -8.250000
13.250000 -22.750000 -9.250000
-9.250000 -27.250000 3.750000
40.250000 23.250000 10.750000
-14.250000 -27.250000 2.250000
20.250000 15.250000 25.250000
-14.250000 -10.250000 25.250000
46.250000 8.750000 11.250000
39.250000 -9.750000 12.250000
26.750000 -2.750000 -8.250000
17.250000 -17.750000 -9.250000
42.750000 -27.250000 7.750000
35.250000 4.250000 12.250000
21.250000 -16.250000 24.250000
18.750000 3.250000 -8.250000
-13.750000 -27.250000 8.250000
-9.250000 -5.250000 25.250000
4.250000 -13.750000 -9.250000
-25.250000 -27.250000 10.750000
-15.750000 -17.250000 25.250000
-12.250000 26.250000 22.250000
45.250000 10.250000 11.250000
-10.250000 -0.250000 -9.250000
-18.250000 -13.250000 25.250000
-8.250000 -14.250000 25.250000
55.250000 -16.250000 10.250000
-11.250000 -14.750000 25.250000
35.750000 1.250000 -8.250000
26.250000 14.250000 16.750000
-3.250000 -23.250000 25.250000
11.750000 26.250000 24.250000
-0.750000 -27.250000 2.250000
6.750000 -9.750000 -9.250000
40.750000 -4.750000 12.250000
-9.750000 -26.250000 22.750000
18.750000 -2.250000 25.250000
-14.250000 -17.750000 25.250000
-16.750000 -27.250000 5.750000
16.250000 -24.250000 24.250000
-8.750000 -13.750000 25.250000
-9.250000 -21.250000 25.250000
-15.750000 5.250000 25.250000
16.750000 -0.750000 25.250000
38.250000 -25.250000 10.250000
47.750000 -24.750000 9.250000
-18.250000 -27.250000 0.750000
25.750000 27.250000 7.750000
53.750000 -16.750000 10.250000
-8.750000 -27.250000 3.250000
33.250000 -18.750000 12.250000
1.750000 -14.750000 -9.250000
17.750000 26.250000 24.250000
-35.750000 29.250000 -20.250000
14.750000 -20.250000 -9.250000
-3.750000 -27.250000 0.750000
49.750000 2.750000 11.250000
25.750000 -7.750000 -8.250000
48.750000 -11.250000 11.250000
34.250000 11.750000 12.250000
32.750000 -7.250000 12.250000
-17.750000 -6.250000 25.250000
20.250000 27.250000 -0.750000
-10.750000 22.250000 25.250000
-16.750000 2.250000 25.250000
15.250000 -12.750000 25.250000
48.250000 0.250000 11.250000
41.750000 -28.250000 -10.250000
-16.750000 12.250000 -8.250000
52.750000 27.250000 5.750000
37.750000 -19.750000 11.250000
-20.750000 11.750000 -8.250000
9.750000 -18.250000 -9.250000
-15.750000 -7.250000 25.250000
-14.250000 4.250000 25.250000
23.750000 11.250000 -8.250000
-13.250000 -20.750000 25.250000
37.750000 -3.750000 12.250000
-8.750000 -27.250000 -5.750000
18.750000 27.250000 5.750000
46.750000 -28.250000 -19.250000
45.750000 9.750000 11.250000
3.250000 -26.250000 -4.750000
7.250000 23.250000 25.250000
-18.750000 -27.250000 7.750000
-18.750000 -27.250000 3.250000
-19.250000 11.250000 -8.250000
14.250000 -26.250000 -4.750000
24.250000 2.250000 18.250000
-0.750000 23.750000 25.250000
-10.250000 -27.250000 2.250000
-4.750000 23.250000 25.250000
-20.750000 -8.250000 25.250000
34.250000 -26.250000 10.250000
11.250000 7.250000 26.250000
-9.250000 -27.250000 9.750000
-13.750000 -9.750000 25.250000
43.250000 12.750000 11.250000
-12.250000 -17.250000 -9.250000
-11.750000 -27.250000 0.750000
26.250000 27.250000 7.250000
40.250000 0.750000 12.250000
33.750000 -12.250000 -8.250000
18.250000 -4.750000 25.250000
3.250000 -26.250000 -5.750000
-14.250000 2.250000 25.250000
-15.250000 15.750000 25.250000
-16.250000 22.750000 24.250000
42.750000 -28.250000 -2.750000
25.250000 2.250000 -8.250000
-14.750000 9.250000 25.250000
15.750000 -22.750000 -9.250000
-12.250000 17.750000 25.250000
-13.750000 3.250000 25.250000
-16.750000 -1.250000 25.250000
-0.750000 -26.250000 15.750000
-23.250000 -27.250000 10.750000
-22.250000 -27.250000 7.750000
56.750000 0.750000 10.250000
12.750000 27.250000 18.250000
39.750000 22.250000 11.250000
-9.750000 -27.250000 4.750000
-10.750000 16.750000 25.250000
-20.750000 -11.750000 25.250000
10.750000 -18.250000 -9.250000
-13.750000 13.750000 25.250000
58.250000 11.750000 8.250000
1.750000 -26.250000 -6.750000
-10.750000 17.750000 25.250000
55.250000 23.250000 9.250000
-6.750000 -27.250000 0.250000
56.250000 -8.750000 10.250000
7.250000 23.750000 25.250000
39.750000 17.250000 11.250000
39.250000 -5.250000 12.250000
17.750000 -27.250000 4.250000
36.750000 -1.250000 12.250000
50.250000 -6.250000 11.250000
19.750000 1.250000 25.250000
11.750000 -0.750000 26.250000
-8.250000 -18.750000 25.250000
22.750000 14.750000 -8.250000
-35.750000 -29.250000 -17.750000
-35.250000 29.250000 -20.750000
8.750000 4.750000 26.250000
-2.750000 23.750000 25.250000
-20.750000 -4.750000 25.250000
23.250000 0.750000 24.250000
8.250000 -23.750000 25.250000
15.250000 26.250000 -7.750000
-1.250000 -26.250000 22.750000
-15.750000 -5.250000 25.250000
-21.750000 -4.750000 25.250000
-6.250000 -5.250000 -9.250000
-7.250000 -23.750000 25.250000
21.250000 27.250000 12.750000
0.750000 -27.250000 20.250000
23.250000 27.250000 9.250000
33.750000 9.750000 12.250000
54.250000 -23.250000 9.250000
35.250000 -1.250000 12.250000
45.250000 -13.750000 11.250000
-14.750000 10.250000 25.250000
0.250000 -26.250000 -4.750000
21.750000 9.250000 25.250000
21.750000 26.250000 22.750000
54.750000 -14.750000 10.250000
-14.750000 -27.250000 10.750000
29.250000 -15.250000 -8.250000
40.250000 -17.250000 11.250000
5.250000 -7.750000 26.250000
38.750000 -3.750000 -8.250000
-8.750000 1.750000 25.250000
41.250000 -17.250000 11.250000
49.750000 -9.250000 11.250000
34.750000 -5.750000 -8.250000
-7.250000 -26.250000 13.750000
-8.250000 -27.250000 0.250000
21.250000 3.250000 -8.250000
27.750000 -27.250000 4.750000
-7.750000 -7.750000 -9.250000
-19.750000 -27.250000 1.750000
49.250000 -23.250000 10.250000
-27.750000 26.250000 11.750000
40.250000 3.750000 12.250000
-23.750000 10.250000 24.250000
-8.750000 14.250000 25.250000
-11.750000 -27.250000 -0.250000
21.250000 27.250000 8.250000
57.750000 -2.750000 10.250000
-15.250000 -27.250000 6.250000
33.250000 -19.250000 12.250000
6.750000 -27.250000 8.250000
49.750000 6.750000 11.250000
56.250000 5.750000 10.250000
-16.750000 -19.250000 25.250000
17.250000 -27.250000 10.750000
-20.750000 -6.750000 25.250000
21.750000 -21.250000 24.250000
0.750000 -26.250000 15.750000
10.250000 -5.750000 26.250000
17.750000 27.250000 -1.250000
32.750000 27.250000 9.250000
22.750000 0.750000 -8.250000
2.750000 -15.750000 -9.250000
-10.250000 -1.750000 25.250000
5.250000 -8.250000 -9.250000
22.750000 6.250000 -8.250000
35.250000 -4.750000 -8.250000
37.750000 -13.750000 12.250000
-2.250000 26.250000 -7.750000
-9.250000 -27.250000 4.250000
37.250000 15.250000 11.750000
39.250000 -2.750000 -8.250000
-17.750000 -11.250000 25.250000
32.250000 5.750000 12.250000
15.750000 -17.750000 -9.250000
-17.750000 -4.750000 -8.250000
-14.750000 10.750000 25.250000
16.750000 5.250000 -8.250000
49.250000 23.750000 10.250000
34.750000 4.250000 12.250000
46.750000 -25.750000 9.250000
-9.250000 -24.750000 24.250000
13.250000 -12.250000 -9.250000
-1.750000 -27.250000 0.250000
20.250000 -3.750000 -8.250000
11.750000 27.250000 17.750000
-8.750000 -8.750000 25.250000
25.750000 0.750000 -8.250000
-21.250000 -6.750000 25.250000
24.250000 -4.250000 -8.250000
52.750000 -19.250000 10.250000
-1.250000 -27.250000 3.250000
34.750000 -15.250000 12.250000
-20.250000 -9.250000 25.250000
52.250000 -28.250000 -21.250000
-21.250000 -1.250000 25.250000
-17.750000 -5.250000 25.250000
47.250000 -9.250000 11.250000
36.750000 -6.250000 12.250000
-11.750000 -27.250000 -4.750000
35.250000 -8.250000 12.250000
-17.750000 -4.250000 25.250000
37.250000 -25.250000 10.750000
-13.750000 -27.250000 8.750000
30.250000 7.250000 13.250000
-2.750000 -27.250000 8.750000
33.750000 11.750000 12.250000
26.750000 -2.250000 -8.250000
-33.750000 27.250000 8.750000
-5.750000 -4.250000 -9.250000
30.250000 2.250000 13.250000
-37.250000 -29.250000 -9.750000
-15.250000 -27.250000 -1.250000
25.750000 -27.250000 3.750000
51.250000 19.750000 10.250000
38.750000 -25.250000 10.250000
13.750000 -26.250000 -3.250000
-37.750000 -29.250000 -9.250000
-12.750000 10.250000 25.250000
-0.250000 27.250000 13.250000
-21.750000 -7.750000 -8.250000
29.250000 1.250000 13.750000
23.250000 -13.750000 24.250000
31.250000 -7.750000 -8.250000
14.750000 -17.250000 -9.250000
49.750000 -6.250000 11.250000
11.750000 -20.250000 -9.250000
-18.750000 -13.250000 25.250000
41.750000 -14.250000 11.250000
30.250000 5.750000 13.250000
-8.250000 -11.750000 25.250000
36.250000 -15.250000 12.250000
20.250000 26.250000 24.250000
39.250000 21.250000 11.250000
-20.250000 -6.750000 -8.250000
9.750000 27.250000 19.750000
14.250000 27.250000 5.750000
56.750000 -10.250000 10.250000
2.750000 -26.250000 -5.750000
19.250000 10.250000 25.250000
-41.250000 -29.250000 -16.250000
49.750000 0.750000 11.250000
27.750000 -17.750000 15.250000
-3.750000 -4.750000 -9.250000
-12.250000 -5.250000 25.250000
-12.250000 -21.250000 25.250000
50.750000 5.750000 11.250000
24.250000 -11.250000 20.750000
-12.750000 -27.250000 3.750000
-22.250000 -27.250000 8.750000
45.750000 8.750000 11.250000
36.250000 3.750000 12.250000
51.750000 4.750000 11.250000
27.750000 27.250000 7.250000
14.250000 -21.750000 25.250000
45.250000 -15.250000 11.250000
2.250000 -26.250000 -5.750000
-18.250000 -4.750000 25.250000
4.750000 -26.250000 -5.250000
54.250000 -23.750000 9.250000
-16.250000 12.250000 -8.250000
8.250000 3.750000 26.250000
27.250000 12.250000 15.250000
31.250000 -27.250000 -4.750000
21.250000 15.750000 25.250000
26.250000 1.250000 -8.250000
-14.250000 -27.250000 2.750000
-13.250000 22.750000 25.250000
7.250000 -12.750000 -9.250000
-14.750000 -11.750000 25.250000
38.250000 -18.750000 11.250000
35.250000 -11.750000 12.250000
16.250000 -27.250000 4.750000
50.750000 22.250000 10.250000
-20.250000 -0.750000 25.250000
31.750000 -3.250000 13.250000
-15.750000 -13.250000 25.250000
3.750000 -26.250000 15.250000
25.250000 -27.250000 2.250000
-10.750000 -27.250000 -6.750000
4.750000 -7.250000 26.250000
13.750000 27.250000 19.250000
-13.750000 14.250000 25.250000
10.750000 27.250000 4.750000
13.250000 -22.750000 25.250000
27.250000 3.250000 -8.250000
-7.750000 -26.250000 13.250000
-9.750000 2.750000 25.250000
29.250000 4.750000 -8.250000
38.250000 -7.750000 12.250000
10.750000 27.250000 18.750000
-9.750000 -0.250000 -9.250000
14.750000 4.750000 -8.250000
52.750000 0.250000 11.250000
20.750000 14.250000 25.250000
-18.750000 -4.750000 25.250000
41.250000 -28.250000 -2.750000
-17.750000 -20.250000 25.250000
8.750000 7.750000 26.250000
16.750000 -27.250000 1.250000
40.750000 21.750000 11.250000
36.750000 -26.250000 9.250000
-11.250000 14.750000 25.250000
17.750000 -24.250000 -8.250000
33.250000 0.250000 -8.250000
4.250000 -11.750000 -9.250000
18.750000 27.250000 8.250000
-8.750000 19.750000 25.250000
-13.750000 -17.250000 -9.250000
7.250000 26.250000 24.250000
-14.250000 19.750000 25.250000
21.250000 -11.250000 24.250000
-22.750000 8.750000 -8.250000
14.750000 -26.250000 -6.250000
23.250000 5.750000 -8.250000
30.750000 -7.750000 -8.250000
13.750000 -8.750000 -9.250000
-17.250000 -2.250000 25.250000
6.750000 -7.750000 26.250000
15.250000 -16.250000 -9.250000
38.250000 -12.750000 12.250000
-11.750000 9.250000 25.250000
41.750000 13.250000 11.250000
9.750000 0.250000 26.250000
16.250000 -3.750000 25.250000
-11.750000 -3.250000 -9.250000
-7.250000 -1.750000 -9.250000
-8.750000 -27.250000 4.250000
-11.250000 -27.250000 0.750000
33.750000 8.250000 12.250000
35.250000 3.250000 12.250000
31.750000 5.250000 -8.250000
-2.250000 -26.250000 15.250000
-11.750000 -5.250000 -9.250000
-1.250000 -7.750000 -9.250000
56.250000 2.750000 10.250000
-10.750000 -0.250000 -9.250000
-10.250000 -27.250000 6.750000
19.250000 27.250000 6.750000
42.750000 15.750000 11.250000
-12.250000 -0.250000 25.250000
-22.750000 -27.250000 10.250000
36.250000 -14.250000 12.250000
41.750000 -3.250000 12.250000
47.250000 0.750000 11.250000
-12.750000 14.750000 25.250000
21.250000 -12.250000 24.250000
15.750000 27.250000 17.750000
-24.750000 -3.250000 -7.250000
6.250000 -8.250000 -9.250000
26.250000 -27.250000 2.750000
-18.750000 -9.750000 25.250000
-26.250000 -26.250000 15.250000
-8.250000 -17.750000 25.250000
36.750000 -24.250000 11.250000
15.750000 26.250000 -7.750000
-8.250000 -6.250000 -9.250000
-3.250000 -0.250000 -9.250000
19.250000 6.750000 25.250000
-14.250000 17.250000 25.250000
53.250000 -16.750000 10.250000
-8.250000 -5.250000 -9.250000
22.250000 1.750000 -8.250000
42.250000 11.750000 11.250000
10.250000 -26.250000 -5.250000
47.750000 -28.250000 -11.250000
54.250000 -12.250000 10.250000
33.750000 0.750000 12.250000
13.750000 -12.250000 -9.250000
-15.750000 -15.250000 25.250000
-15.750000 -27.250000 9.750000
-2.250000 -27.250000 2.750000
38.750000 -15.750000 12.250000
45.750000 -10.750000 11.250000
9.250000 -8.250000 -9.250000
-13.250000 -7.250000 25.250000
13.750000 -10.250000 -9.250000
-12.750000 -12.750000 25.250000
11.250000 -27.250000 19.250000
-14.250000 -6.250000 25.250000
20.250000 0.250000 -8.250000
15.250000 -10.250000 25.750000
51.250000 3.250000 11.250000
24.250000 14.250000 20.750000
22.750000 -8.250000 24.250000
4.750000 -25.250000 25.250000
29.250000 1.750000 -8.250000
-19.250000 -16.250000 25.250000
0.250000 20.250000 25.250000
5.750000 -15.750000 -9.250000
-8.250000 9.250000 25.250000
24.750000 4.750000 -8.250000
22.750000 -0.750000 24.250000
-13.250000 -16.750000 25.250000
33.750000 4.750000 12.250000
-21.750000 -13.750000 -8.250000
-12.750000 -27.250000 1.250000
35.250000 0.750000 -8.250000
30.750000 2.250000 -8.250000
-3.750000 -1.750000 -9.250000
38.750000 -2.750000 12.250000
-9.250000 13.750000 25.250000
13.250000 27.250000 18.250000
-20.250000 -10.250000 25.250000
0.250000 -27.250000 8.750000
1.250000 -27.250000 9.250000
-40.250000 -29.250000 -18.250000
-14.250000 0.250000 25.250000
-1.250000 -26.750000 19.250000
45.750000 -28.250000 -17.250000
-22.250000 8.750000 -8.250000
54.250000 -14.250000 10.250000
25.250000 -26.250000 14.750000
-13.750000 -27.250000 9.250000
0.250000 -8.750000 -9.250000
16.250000 27.250000 3.250000
-15.250000 -1.250000 25.250000
34.250000 1.250000 12.250000
-21.750000 -26.250000 15.250000
54.750000 8.250000 10.250000
0.250000 -26.250000 -5.750000
5.750000 -1.750000 26.250000
-26.250000 -26.250000 15.750000
31.750000 -5.250000 -8.250000
-12.250000 7.750000 25.250000
19.750000 -22.750000 24.250000
-9.250000 19.250000 25.250000
47.250000 10.750000 11.250000
-19.750000 -5.750000 -8.250000
27.750000 -18.750000 15.250000
37.750000 2.750000 12.250000
8.250000 -27.250000 20.750000
-17.750000 -9.250000 25.250000
31.250000 4.750000 -8.250000
27.250000 10.750000 -8.250000
41.250000 -1.250000 12.250000
23.250000 -27.250000 16.250000
47.750000 -26.250000 8.250000
-11.750000 -13.250000 25.250000
32.250000 14.250000 12.250000
23.250000 11.750000 -8.250000
-10.750000 -27.250000 -3.250000
33.750000 1.750000 12.250000
36.750000 -8.750000 12.250000
-25.750000 10.250000 -7.250000
48.750000 22.750000 10.250000
10.250000 -27.250000 18.750000
6.250000 -6.750000 26.250000
-31.250000 27.250000 7.750000
44.250000 14.250000 11.250000
22.750000 -1.250000 24.250000
-4.250000 -2.750000 -9.250000
17.250000 16.250000 25.250000
15.750000 27.250000 4.750000
36.250000 -26.250000 9.250000
35.250000 -10.750000 12.250000
28.750000 -27.250000 5.250000
1.750000 -27.250000 20.250000
25.750000 4.750000 -8.250000
37.250000 -25.250000 10.250000
-12.750000 -21.250000 25.250000
9.750000 -17.750000 -9.250000
10.750000 27.250000 18.250000
22.250000 27.250000 3.250000
18.250000 -17.250000 -9.250000
10.250000 7.250000 26.250000
-8.250000 -8.750000 25.250000
-11.250000 -27.250000 6.250000
5.750000 -7.750000 26.250000
27.250000 9.250000 15.750000
40.750000 13.250000 11.250000
41.750000 -28.250000 -11.750000
-14.750000 11.750000 25.250000
18.250000 -2.750000 25.250000
47.250000 -12.750000 11.250000
46.750000 13.250000 11.250000
29.250000 0.250000 13.250000
45.750000 -14.750000 11.250000
-7.250000 -27.250000 2.750000
-14.750000 6.750000 25.250000
-21.750000 10.750000 -8.250000
-15.750000 -7.750000 25.250000
47.750000 1.750000 11.250000
-19.250000 16.250000 -8.250000
-11.250000 -7.750000 25.250000
30.250000 -4.750000 -8.250000
21.250000 -21.250000 24.250000
-9.250000 -1.250000 -9.250000
-48.250000 -28.250000 -10.250000
18.250000 2.250000 -8.250000
-1.250000 -23.250000 25.250000
46.250000 -28.250000 -17.250000
29.250000 -27.250000 5.750000
29.250000 -17.250000 14.250000
18.750000 27.250000 5.250000
45.250000 -12.750000 11.250000
32.250000 4.250000 12.250000
36.750000 -8.250000 12.250000
-19.750000 -27.250000 7.750000
