ply
format ascii 1.0
element vertex 382
property float x
property float y
property float z
end_header
34.000000 -10.000000 6.000000
30.000000 6.000000 -2.000000
30.000000 -10.000000 -2.000000
-14.000000 -10.000000 -6.000000
-26.000000 18.000000 18.000000
34.000000 -2.000000 10.000000
34.000000 14.000000 2.000000
-26.000000 22.000000 14.000000
34.000000 -14.000000 10.000000
38.000000 -6.000000 -2.000000
-42.000000 26.000000 -18.000000
50.000000 10.000000 2.000000
18.000000 -22.000000 18.000000
34.000000 -22.000000 6.000000
2.000000 22.000000 -6.000000
26.000000 -22.000000 -2.000000
54.000000 2.000000 6.000000
-26.000000 6.000000 14.000000
58.000000 -10.000000 6.000000
-26.000000 14.000000 2.000000
30.000000 22.000000 -2.000000
34.000000 -18.000000 10.000000
-22.000000 18.000000 18.000000
30.000000 -22.000000 10.000000
-18.000000 -2.000000 -2.000000
38.000000 6.000000 -2.000000
-18.000000 18.000000 -2.000000
38.000000 10.000000 6.000000
-18.000000 2.000000 -6.000000
34.000000 -6.000000 10.000000
-18.000000 18.000000 14.000000
2.000000 -22.000000 18.000000
34.000000 10.000000 10.000000
-14.000000 -22.000000 18.000000
46.000000 10.000000 2.000000
-22.000000 -10.000000 22.000000
34.000000 -10.000000 10.000000
-18.000000 18.000000 22.000000
-22.000000 14.000000 18.000000
-18.000000 -14.000000 18.000000
-22.000000 -14.000000 18.000000
-26.000000 -6.000000 2.000000
-22.000000 -22.000000 18.000000
18.000000 -2.000000 22.000000
18.000000 -10.000000 22.000000
34.000000 -14.000000 2.000000
54.000000 6.000000 6.000000
26.000000 -22.000000 -6.000000
18.000000 -22.000000 22.000000
34.000000 2.000000 -2.000000
-18.000000 -14.000000 -6.000000
54.000000 -6.000000 -2.000000
-22.000000 18.000000 2.000000
-10.000000 -14.000000 -6.000000
54.000000 14.000000 6.000000
38.000000 -10.000000 -2.000000
2.000000 22.000000 -2.000000
30.000000 2.000000 10.000000
26.000000 -10.000000 -6.000000
46.000000 -14.000000 6.000000
-26.000000 -6.000000 -2.000000
58.000000 -2.000000 6.000000
50.000000 2.000000 6.000000
-26.000000 22.000000 10.000000
54.000000 -10.000000 2.000000
18.000000 2.000000 18.000000
-26.000000 -2.000000 10.000000
-22.000000 18.000000 14.000000
-18.000000 -10.000000 -2.000000
30.000000 18.000000 -2.000000
50.000000 -2.000000 2.000000
42.000000 -2.000000 10.000000
-26.000000 -2.000000 6.000000
-10.000000 18.000000 -6.000000
-26.000000 -6.000000 10.000000
38.000000 -14.000000 10.000000
-18.000000 -22.000000 -2.000000
26.000000 10.000000 -6.000000
-26.000000 10.000000 10.000000
-18.000000 18.000000 6.000000
34.000000 10.000000 2.000000
2.000000 -22.000000 22.000000
2.000000 18.000000 -2.000000
26.000000 -14.000000 -6.000000
-2.000000 22.000000 -2.000000
42.000000 -10.000000 -2.000000
50.000000 -6.000000 6.000000
26.000000 -6.000000 -6.000000
26.000000 14.000000 -2.000000
50.000000 -6.000000 -2.000000
-38.000000 26.000000 -18.000000
-14.000000 18.000000 -2.000000
38.000000 10.000000 2.000000
26.000000 -2.000000 10.000000
26.000000 14.000000 10.000000
34.000000 -14.000000 -2.000000
-22.000000 10.000000 18.000000
30.000000 -6.000000 10.000000
50.000000 -6.000000 2.000000
42.000000 -10.000000 10.000000
38.000000 -2.000000 -2.000000
38.000000 -14.000000 2.000000
50.000000 -10.000000 2.000000
38.000000 2.000000 -2.000000
-26.000000 14.000000 14.000000
-22.000000 18.000000 6.000000
-26.000000 -14.000000 2.000000
-22.000000 10.000000 -2.000000
-18.000000 -18.000000 -2.000000
-26.000000 -22.000000 18.000000
46.000000 2.000000 -2.000000
18.000000 -10.000000 18.000000
30.000000 14.000000 -2.000000
18.000000 -6.000000 22.000000
-22.000000 -18.000000 18.000000
-14.000000 22.000000 -2.000000
30.000000 10.000000 -2.000000
-26.000000 10.000000 14.000000
-14.000000 -18.000000 18.000000
34.000000 -10.000000 2.000000
-18.000000 -6.000000 -2.000000
18.000000 18.000000 18.000000
42.000000 2.000000 10.000000
30.000000 -14.000000 10.000000
-18.000000 -6.000000 -6.000000
50.000000 2.000000 -2.000000
26.000000 -18.000000 -6.000000
-26.000000 -10.000000 14.000000
-10.000000 -10.000000 -6.000000
-18.000000 -22.000000 18.000000
18.000000 -2.000000 18.000000
22.000000 -22.000000 18.000000
26.000000 10.000000 10.000000
-26.000000 -2.000000 18.000000
-26.000000 6.000000 6.000000
38.000000 6.000000 10.000000
-26.000000 22.000000 6.000000
-2.000000 18.000000 -6.000000
-26.000000 -6.000000 6.000000
-26.000000 2.000000 6.000000
-18.000000 22.000000 10.000000
50.000000 -14.000000 6.000000
38.000000 10.000000 10.000000
-14.000000 -18.000000 22.000000
-18.000000 -10.000000 22.000000
18.000000 -18.000000 22.000000
34.000000 14.000000 6.000000
-26.000000 2.000000 10.000000
-10.000000 -22.000000 18.000000
26.000000 22.000000 -2.000000
-18.000000 22.000000 2.000000
30.000000 -2.000000 10.000000
30.000000 -2.000000 -2.000000
-22.000000 -2.000000 -2.000000
34.000000 -2.000000 -2.000000
46.000000 -10.000000 6.000000
26.000000 -22.000000 10.000000
-26.000000 -2.000000 2.000000
42.000000 -10.000000 6.000000
30.000000 -14.000000 -2.000000
30.000000 -10.000000 10.000000
-18.000000 6.000000 -2.000000
-18.000000 22.000000 6.000000
26.000000 -2.000000 -2.000000
-18.000000 -18.000000 22.000000
-26.000000 -14.000000 14.000000
-18.000000 6.000000 -6.000000
42.000000 -6.000000 -2.000000
18.000000 2.000000 22.000000
30.000000 18.000000 10.000000
-26.000000 -2.000000 14.000000
-26.000000 10.000000 2.000000
-18.000000 18.000000 18.000000
2.000000 -18.000000 18.000000
-26.000000 -22.000000 10.000000
42.000000 2.000000 -2.000000
50.000000 6.000000 -2.000000
-26.000000 18.000000 10.000000
50.000000 10.000000 6.000000
42.000000 6.000000 -2.000000
38.000000 -10.000000 10.000000
-6.000000 18.000000 -2.000000
-26.000000 2.000000 18.000000
6.000000 18.000000 -6.000000
-18.000000 10.000000 22.000000
-10.000000 -18.000000 18.000000
34.000000 14.000000 10.000000
-34.000000 26.000000 -18.000000
-18.000000 -2.000000 -6.000000
50.000000 6.000000 2.000000
-26.000000 14.000000 6.000000
-22.000000 -10.000000 18.000000
42.000000 10.000000 6.000000
26.000000 26.000000 2.000000
-6.000000 22.000000 -6.000000
-26.000000 -2.000000 -2.000000
30.000000 6.000000 10.000000
38.000000 -2.000000 10.000000
22.000000 2.000000 18.000000
34.000000 -18.000000 6.000000
30.000000 2.000000 -2.000000
-22.000000 2.000000 -2.000000
-26.000000 -18.000000 14.000000
54.000000 -14.000000 6.000000
46.000000 -6.000000 -2.000000
22.000000 6.000000 18.000000
30.000000 22.000000 10.000000
6.000000 22.000000 -6.000000
-26.000000 2.000000 2.000000
18.000000 -14.000000 18.000000
-26.000000 -14.000000 6.000000
-22.000000 18.000000 -2.000000
26.000000 2.000000 -6.000000
50.000000 -10.000000 6.000000
18.000000 6.000000 18.000000
-18.000000 2.000000 -2.000000
58.000000 -6.000000 2.000000
54.000000 -10.000000 6.000000
6.000000 22.000000 -2.000000
-10.000000 -14.000000 -2.000000
58.000000 -10.000000 2.000000
22.000000 18.000000 22.000000
22.000000 -18.000000 18.000000
-18.000000 22.000000 14.000000
34.000000 22.000000 6.000000
26.000000 -2.000000 -6.000000
6.000000 -22.000000 18.000000
-26.000000 -10.000000 18.000000
-6.000000 18.000000 -6.000000
-26.000000 -22.000000 14.000000
-26.000000 -6.000000 14.000000
26.000000 -6.000000 10.000000
-18.000000 -10.000000 -6.000000
26.000000 6.000000 -2.000000
38.000000 -10.000000 6.000000
26.000000 -6.000000 -2.000000
54.000000 10.000000 2.000000
26.000000 18.000000 -2.000000
26.000000 -10.000000 10.000000
6.000000 -18.000000 18.000000
-26.000000 -18.000000 18.000000
-26.000000 2.000000 14.000000
-26.000000 6.000000 18.000000
54.000000 -2.000000 2.000000
-26.000000 18.000000 14.000000
58.000000 -14.000000 6.000000
-18.000000 -22.000000 -6.000000
-6.000000 22.000000 -2.000000
34.000000 10.000000 6.000000
-22.000000 -14.000000 22.000000
6.000000 -18.000000 22.000000
-22.000000 6.000000 -2.000000
-26.000000 10.000000 6.000000
58.000000 -2.000000 2.000000
46.000000 6.000000 -2.000000
18.000000 -6.000000 18.000000
30.000000 10.000000 10.000000
-22.000000 -6.000000 -2.000000
30.000000 -6.000000 -2.000000
30.000000 -18.000000 -2.000000
34.000000 6.000000 -2.000000
-18.000000 -14.000000 -2.000000
-18.000000 10.000000 -6.000000
-26.000000 -10.000000 2.000000
-26.000000 -22.000000 6.000000
46.000000 -2.000000 -2.000000
22.000000 -10.000000 18.000000
-10.000000 -18.000000 22.000000
54.000000 -2.000000 -2.000000
22.000000 22.000000 18.000000
18.000000 6.000000 22.000000
34.000000 6.000000 10.000000
-22.000000 22.000000 18.000000
42.000000 -6.000000 10.000000
-18.000000 10.000000 18.000000
38.000000 14.000000 6.000000
26.000000 6.000000 -6.000000
46.000000 10.000000 6.000000
30.000000 14.000000 10.000000
26.000000 18.000000 10.000000
34.000000 2.000000 10.000000
50.000000 -2.000000 -2.000000
-22.000000 14.000000 -2.000000
-18.000000 -18.000000 18.000000
-26.000000 -10.000000 10.000000
42.000000 -2.000000 -2.000000
34.000000 18.000000 6.000000
34.000000 -14.000000 6.000000
18.000000 22.000000 18.000000
-30.000000 -18.000000 6.000000
2.000000 18.000000 -6.000000
-26.000000 14.000000 10.000000
-22.000000 18.000000 10.000000
-26.000000 -14.000000 10.000000
26.000000 -14.000000 10.000000
42.000000 10.000000 2.000000
54.000000 6.000000 2.000000
2.000000 -18.000000 22.000000
-14.000000 -10.000000 -2.000000
18.000000 22.000000 22.000000
-18.000000 14.000000 22.000000
-18.000000 14.000000 18.000000
26.000000 14.000000 -6.000000
-10.000000 18.000000 -2.000000
38.000000 -10.000000 2.000000
30.000000 -18.000000 10.000000
26.000000 6.000000 10.000000
-14.000000 -14.000000 -2.000000
26.000000 -18.000000 -2.000000
-26.000000 6.000000 -2.000000
-18.000000 -18.000000 -6.000000
-22.000000 22.000000 6.000000
-18.000000 22.000000 -2.000000
-10.000000 22.000000 -6.000000
18.000000 -14.000000 22.000000
6.000000 18.000000 -2.000000
18.000000 18.000000 22.000000
50.000000 14.000000 6.000000
-2.000000 18.000000 -2.000000
50.000000 2.000000 2.000000
22.000000 -14.000000 18.000000
26.000000 -18.000000 10.000000
-26.000000 -18.000000 6.000000
-18.000000 14.000000 -2.000000
-10.000000 -10.000000 -2.000000
26.000000 18.000000 -6.000000
26.000000 -10.000000 -2.000000
-26.000000 18.000000 6.000000
54.000000 -6.000000 6.000000
18.000000 -18.000000 18.000000
38.000000 -14.000000 6.000000
34.000000 -10.000000 -2.000000
54.000000 -2.000000 6.000000
-26.000000 10.000000 -2.000000
54.000000 2.000000 2.000000
22.000000 18.000000 18.000000
38.000000 -18.000000 6.000000
-18.000000 18.000000 -6.000000
-26.000000 -6.000000 18.000000
-22.000000 -18.000000 22.000000
-2.000000 22.000000 -6.000000
38.000000 10.000000 -2.000000
-14.000000 18.000000 -6.000000
42.000000 14.000000 6.000000
38.000000 -6.000000 10.000000
54.000000 -6.000000 2.000000
-18.000000 10.000000 -2.000000
26.000000 22.000000 14.000000
26.000000 22.000000 10.000000
-22.000000 -10.000000 -2.000000
-18.000000 18.000000 2.000000
54.000000 10.000000 6.000000
26.000000 2.000000 10.000000
46.000000 -10.000000 2.000000
-18.000000 -10.000000 18.000000
26.000000 10.000000 -2.000000
-26.000000 -18.000000 10.000000
-18.000000 22.000000 18.000000
42.000000 -10.000000 2.000000
46.000000 14.000000 6.000000
-14.000000 -14.000000 -6.000000
-22.000000 22.000000 10.000000
-18.000000 -14.000000 22.000000
34.000000 -6.000000 -2.000000
26.000000 2.000000 -2.000000
50.000000 6.000000 6.000000
42.000000 -14.000000 6.000000
58.000000 -6.000000 6.000000
58.000000 -6.000000 -2.000000
34.000000 10.000000 -2.000000
-26.000000 -14.000000 18.000000
-18.000000 18.000000 10.000000
46.000000 -10.000000 -2.000000
-10.000000 22.000000 -2.000000
-26.000000 6.000000 2.000000
-26.000000 -10.000000 6.000000
50.000000 -2.000000 6.000000
38.000000 2.000000 10.000000
26.000000 18.000000 14.000000
-26.000000 6.000000 10.000000
-26.000000 2.000000 -2.000000
26.000000 -14.000000 -2.000000